 13.76528    4.66715   1.735134   8.098133
  2.86825   6.627374   -.718101  -4.759124
 8.984786  -1.884503   3.237077   6.100282
-11.95973    5.72502    -3.2637  -18.68475
 4.427088  -5.003077  -.3150039  -1.575989
 .0311508   .8004668  -2.210355  -1.769316
 .8526165   1.610294  -1.091526  -1.757678
 14.23994   5.383569   1.459325   7.856374
 2.280926   -3.55476  -.6396589  -2.273834
 4.823462   3.007665   .2712392   .8157966
 5.140864  -5.329603  -.2230446  -1.188739
-20.16883  -6.031631  -4.509635  -27.20046
 28.66357   6.596103   3.193927   21.06747
 1.720735    .533814   .3501621   .1869214
-5.797158  -7.497187  -1.906628  -14.29434
 3.772092   -.931644   1.975485   1.840448
 -.182302   6.779635   -1.17439  -7.961937
 8.988139   8.605865  -.0717797  -.6177265
 3.522815   1.307717   .9291744   1.215098
 -5.76661   4.385785   -2.54285  -11.15239
 5.574631   1.275705   2.585963   3.298926
-1.788122  -6.139438  -1.454133   -8.92756
-.1981595   3.524152  -1.339985  -4.722311
 1.595166   1.509731  -.6057798  -.9145647
 27.64625   10.23009   1.604694   16.41616
 1.031078   1.915051  -.9837719  -1.883973
 2.045855  -.6511536   .6061565   .3947009
  7.35635   6.044799   .0515405   .3115517
 3.764968   .9545485   1.896624    1.81042
-6.860791  -3.494532  -3.249455  -11.35532
  5.26041  -3.588348   .1872901    .672062
 22.04404   -7.13558   1.949171   13.90846
 6.868077   3.220306    .822211   2.647771
  .335973    1.22052  -1.544053  -1.884547
 2.503024   1.107703   .3568836    .395321
 1.669557  -1.375352   -.513174  -.7057948
 3.171304  -2.191719  -.0093146   -.020415
 1.679955   5.626016  -.8791409  -4.946061
 .6737791   .4871548  -1.669645  -.8133757
 9.970157   6.034092   .4865793   2.936064
 5.269415   6.500258   -.343193  -2.230843
-22.40389   9.123244  -3.565304  -32.52714
  5.97348  -2.243876   1.216468   2.729604
 .6613144  -1.188297  -1.285018  -1.526982
 .7755282   2.929758  -1.076618   -3.15423
 4.141675   4.563452  -.3115574  -1.421777
 3.534813   1.568315    .616265   .9664978
 1.782247   5.354629   -.853912  -4.572382
 1.108148    .379889   -.715317   -.271741
 1.346762  -.4330212  -.1992036  -.0862594
 6.484736    -3.4482   .5906087   2.036537
-.3151751   1.001107  -2.313721  -2.316282
 2.407609   2.433343  -.4215328  -1.025734
 2.427974   1.507266  -.0526067  -.0792923
 1.044266   .3260821  -.8642482  -.2818158
 1.284227   1.223939  -.7677767  -.9397122
 6.728965  -1.365178   3.196498   4.363788
 14.93247   5.397229   1.581412   8.535242
 1.410195  -.8763291  -.5319169  -.4661343
 3.112353  -2.474466  -.1463401  -.3621136
-.0003684   1.012447   -1.98807  -2.012815
  10.4365   6.490162   .4539703   2.946341
 4.309289   -2.19102   .5103872   1.118269
 1.228249  -.5178835  -.5592661  -.2896347
-10.44467   3.395279  -4.370761  -14.83995
 12.29451  -4.084742   1.765049   7.209768
 2.692382  -.9683104   .7477684   .7240719
-14.16998  -11.98701  -2.265535  -27.15699
-7.332072   -5.66215  -2.471539  -13.99422
 3.085251   -.907645    1.29743   1.177606
 2.130057   .8197162   .3785955   .3103408
 7.274499   1.545799   3.059065     4.7287
 9.013736    4.63361   .7294801   3.380126
 8.462416  -1.944582   2.837543   5.517834
 20.43335   6.682624   1.908042   12.75072
 7.326787  -11.96312  -.4711422  -5.636329
-8.146448    4.35858  -3.098493  -13.50503
  8.85883  -3.146174   1.497901   4.712656
 11.90482   4.867517   1.240326   6.037307
 9.403366  -2.431772   2.455655   5.971594
-13.99529  -4.141576  -4.620673  -19.13687
 17.34594   5.383515   2.036295   10.96243
 5.998809   -3.44091   .4527578   1.557899
 4.587565  -1.728014    1.07612   1.859551
 3.530435   -5.11347  -.5051433  -2.583035
-4.805339  -4.119618  -2.409194  -9.924957
-20.25187   5.713357  -4.719682  -26.96523
-2.632102  -5.050355  -1.719177  -8.682457
 19.87799   7.028822   1.685797   11.84917
 8.011698  -2.959123   1.369519   4.052575
-3.403836   2.307706  -2.908318  -6.711542
-2.274987   7.247718  -1.451865  -10.52271
  5.11871  -1.078337   2.819501   3.040372
 8.801992    2.59139   2.010737   5.210602
   1.2911   .9472671  -.6926947  -.6561669
-.0825062   8.935357  -1.121149  -10.01786
 2.140582   1.574932  -.2757901  -.4343507
 3.782529  -3.898638  -.2862816  -1.116108
 2.097936  -4.354305  -.7478505   -3.25637
 4.527084    2.88984   .2205116   .6372434
